# 3D point list with one line of data per point:
#   POINT3D_ID, X, Y, Z, R, G, B, ERROR, TRACK[] as (IMAGE_ID, POINT2D_IDX)
# Number of points: 256, mean track length: 2.3515625
1 -2.3814221900328731 -5.0209719338794701 5.182348194109311 49 78 86 1.1186441223831582 5 7 3 4 2 4
2 1.5714562292310668 -5.0235922380974278 7.5006597045334615 35 33 36 0.62442952438012667 5 34 3 41 2 42
3 -3.3175597030617019 -4.4055856304005232 4.9963874543174844 253 255 254 0.41974053085474222 5 37 3 40 2 46
4 -3.0252114614963599 -5.5161068506861097 4.5753681350536324 64 87 95 0.47954669944601513 5 47 3 70 2 121
5 -3.1286147896904306 -4.6946765612985537 4.9096326211416761 51 78 87 0.61537443529738634 5 50 3 68 2 119
6 -0.51510889882584621 -3.4879498303255621 7.0650335712144816 149 131 117 0.78481215378405333 5 54 3 811
7 5.0257301434440809 -5.250129464654095 9.3835976030560921 159 138 119 0.73949568637171437 5 67 3 1537
8 -0.60950414961609622 -3.2582948477645779 7.0431918414538774 117 99 86 0.49577479746430908 5 83 3 568
9 -0.072832857658162567 -3.1111342959130681 7.4583657200606588 115 99 86 0.30839212395067184 5 84 3 869
10 1.2721150377842059 -3.2270835201533314 8.2528807783994225 102 86 73 0.94048365245110166 5 96 3 82
11 3.459100531821945 -3.7248026337275837 9.2044349082313861 86 72 61 0.24961049659317933 5 142 3 574
12 2.3363913951249833 -3.5271844087078077 8.7276371163093174 92 79 71 0.32691878298259064 5 150 3 1721
13 -0.70773600376935042 -3.7055141270158027 6.7663802254767944 175 157 143 0.11178087095908476 5 151 3 486
14 -1.1519673069998349 -3.6517616065821219 6.6317036118334309 179 160 146 1.3296842553297541 5 155 3 193
15 3.5837164135278705 -5.4708982138310907 8.5096081425747663 35 30 27 0.96375001448011766 5 173 3 99 2 118
16 3.2072965199184531 -5.2441393261893658 8.409344318333277 38 30 27 1.1725415558214407 5 177 3 155
17 4.2043200707784996 -4.4629349006774541 9.3604934802034467 85 72 62 1.0997737113221606 5 186 3 784
18 1.2524674011848589 -4.4676015028481366 7.6024154586057495 73 56 48 1.8006630582841001 5 187 3 1190 2 220
19 -3.2229280907880824 -4.5240897279190548 4.9558317339547209 49 89 99 0.53217409781796776 5 190 3 173
20 3.030515709626592 -4.2342468491696534 8.6904942949952808 94 81 72 0.32451684112374513 5 194 3 783
21 4.374235885545235 -4.1311210759359573 9.5243019555456598 79 67 55 1.1503283191233553 5 196 3 825 2 1296
22 0.75122202715570741 -3.8363097370496604 7.5572847539235344 102 88 79 1.0233666385627529 5 216 3 1601 2 606
23 3.9343211239672971 -3.5352538454189166 9.5865415473089755 135 117 104 1.5014785886691953 5 223 3 622
24 3.1025520644571087 -3.529895024986943 9.1598286147116923 87 77 67 0.20079772108943905 5 227 3 585
25 1.5016806505714682 -3.5404345381895213 8.1683504163880087 211 192 177 1.0786629188330779 5 231 3 852 2 1323
26 1.0403796538448484 -3.5615882486810277 7.9287972845718269 101 87 78 0.24911739222455384 5 233 3 567
27 3.8941911836095362 -5.3840676554871649 8.6835063241618915 25 24 20 0.87052100093077467 5 267 3 67 2 182
28 3.3618693717206076 -5.3573749272619988 8.4271680121582424 145 135 125 0.66807104444057297 5 271 3 112 2 211
29 -3.3400676543322723 -5.0677608137595165 4.6064922357843807 149 192 199 0.41783007710463566 5 273 3 425 2 460
30 -3.1215027099048118 -5.0512909380051623 4.7443057307425267 58 80 91 0.45450534949067195 5 274 3 287 2 319
31 1.8351388081591524 -5.0419028802391548 7.649258674599217 81 68 60 0.028957677296763136 5 277 3 184
32 4.763333819868115 -4.8301189203264618 9.495994836246302 50 42 31 0.48765028788977938 5 281 3 90
33 2.1860743325726602 -3.7463226623870227 8.4966204460482988 98 84 74 0.10827256572132909 5 292 3 375
34 0.42482190521044749 -3.7668597170851847 7.4178293446581218 137 118 104 0.74506642707198378 5 294 3 788
35 -3.4712709414328153 -3.8936862497329705 5.1783696046199212 59 47 41 1.1012308049940869 5 302 3 879 2 632
36 -0.62683940429750407 -3.5987992577396577 6.9450233791475711 137 118 103 0.67087424206142277 5 304 3 1623 2 934
37 1.0059492402124754 -3.4534444939758409 7.9532383869379322 162 140 127 2.429827266445304 5 305 3 1056 2 1329
38 0.45166540082819434 -3.3617827381333041 7.6590699673603098 165 148 132 1.7041244267272699 5 310 3 1053 2 1338
39 0.099161080813743308 -3.3830830776141121 7.4274005360418034 134 115 102 0.18928695467533838 5 311 3 831
40 -0.10847963844118091 -3.2645007216685533 7.3784188264226094 176 157 143 0.79951275124165266 5 315 3 685
41 -1.719512537583872 -3.006167597015577 6.6155673789220719 178 157 144 1.1439505202734264 5 323 3 120
42 -2.2468831754550975 -2.8942335006790225 6.3093621323115396 181 162 148 0.63408092506255942 5 328 3 119
43 -1.9694561283750218 -2.574126025806188 6.67221320089768 184 162 149 1.214873727733313 5 331 3 1766
44 4.9250826252548467 -6.0968176971051413 8.93111777525192 45 36 40 1.7491729809461152 5 349 3 1416 2 316
45 -2.3113913240380861 -3.3072288242101027 6.1257334401030903 146 124 110 0.010110504611966369 5 376 3 1629
46 -0.47915743474879202 -3.3763426117572619 7.113900919743319 186 169 153 0.32220449035483845 5 395 3 234
47 -0.55073900245342744 -3.4631140834001952 7.0757441263635013 148 130 116 0.010381560396432047 5 396 3 1026
48 0.097667852031737806 -3.7053374801572527 7.3047032057317773 98 81 71 0.59897440901844479 5 410 3 798 2 1289
49 2.8345823915475177 -3.5266024784855103 8.9547106495950466 125 111 100 1.4508608997008818 5 411 3 1073
50 1.3973085503998395 -3.6540952924723702 8.0532218414018644 133 116 106 0.07718070287611431 5 412 3 1676
51 1.9182976112932024 -3.7579570300905805 8.2821655904295373 126 110 97 1.3899485981319 5 413 3 821
52 0.62715524099481668 -4.0563815727522243 7.468059487068591 131 112 98 0.17329830756868514 5 426 3 353
53 2.7769777744298603 -4.1691161453559733 8.6841132998554311 114 96 84 0.4740021372505222 5 429 3 547
54 -3.3164343550862898 -4.5685988029012305 4.8897783756296223 255 252 233 0.34711957248762643 5 436 3 524 2 466
55 -3.1617995873653273 -4.5945825005667755 4.9740324170161161 134 182 194 0.21752692316989783 5 439 3 410 2 555
56 -3.3258030459710395 -4.7826533257682362 4.7734864148300638 176 220 227 0.21505396077046454 5 446 3 535 2 561
57 0.9613329522828612 -4.8783668204719142 7.252377453048414 46 44 44 0.32566137245095356 5 450 3 273 2 304
58 -3.3345442559324439 -4.8906060383767045 4.743150886021235 138 178 186 0.4338767762717799 5 451 3 708 2 563
59 1.9617213502976039 -5.02958213131134 7.7088382345686162 62 53 48 1.0052557903208388 5 455 3 445 2 305
60 -3.158138695821596 -4.9979371653403248 4.7499732021233285 184 223 231 0.054464544772419521 5 456 3 538
61 -3.0556300497048015 -5.0130043579305195 4.8000093560794976 168 213 219 0.1371916616869753 5 457 3 537
62 2.736731219700133 -5.2289162018985387 8.1422514148549379 59 42 35 0.47664943811472904 5 459 3 442 2 473
63 -3.1924557721235933 -5.094350623342832 4.6958193803034902 195 236 243 0.070775604111796647 5 460 3 539
64 4.2362094654897575 -5.4275828637002821 8.8862200114444878 22 23 18 0.3572028621255543 5 464 3 271 2 306
65 -3.0953754976163692 -5.2096266510010425 4.6845967083936895 183 224 231 0.213491143735873 5 465 3 541 2 574
66 4.1042957168995811 -5.47360022816863 8.7923269235743948 172 89 59 0.27350945900846863 5 466 3 185 2 210
67 -2.7418704299434395 -5.280935640917388 4.8829459881216595 191 235 244 0.0090835560974500459 5 468 3 540
68 4.5624129070193646 -5.5614939867453659 9.0514585971484252 149 52 27 0.17925987774819654 5 469 3 443 2 470
69 -3.003726159147317 -5.3219791168332753 4.6763009404502931 193 237 246 0.07310501088897553 5 471 3 696
70 -3.3882106030993402 -5.3652571068205193 4.4468576756774505 143 177 186 0.20802204207192471 5 474 3 424
71 -3.2918142842919993 -5.3745275382629085 4.4942389935530604 207 244 250 0.21570358160320602 5 475 3 544
72 -3.1729710084966247 -5.4966331807410613 4.5026108355394312 193 236 243 0.59986217155804633 5 477 3 545 2 584
73 -1.9760215899659257 -2.6592788096154454 6.5985632929700424 83 65 53 0.96809156944682506 5 502 3 332 2 416
74 3.4112832037443259 -1.1158197282570332 10.452421923101827 185 165 154 0.77109278712645279 5 513 3 1278
75 8.0732208611766261 -6.7524752179118295 10.529623435814059 27 20 12 0.88935296119056573 5 540 3 53
76 7.6761055391878017 -6.5839887479230175 10.283736627230885 39 30 25 0.2515407528570785 5 543 3 176
77 -2.9739659305233346 -5.4336363625481079 4.6555078839017341 195 235 243 0.27315188816084102 5 571 3 693
78 -3.1284588892368532 -5.4017478049863437 4.5713790991445977 207 250 255 0.15144708551917607 5 572 3 691
79 -3.0950419385188637 -5.307069769910381 4.6349966187045641 190 233 240 0.13244946559269863 5 575 3 542
80 -3.1687831239120463 -5.296455423699741 4.6032684572421516 197 242 248 0.17278681832078829 5 576 3 695
81 -2.4840848210635595 -5.3243760592578218 5.0076814716165705 185 222 231 0.18888902304063571 5 577 3 702 2 659
82 -2.6820463168288882 -5.2828813020681054 4.9008127917999733 197 237 245 0.024088396438089028 5 578 3 701
83 4.6278944160028184 -5.4950604342479865 9.0769956379200618 40 31 26 0.18896530514597801 5 579 3 270 2 307
84 -2.9888456349847998 -5.2231720027498421 4.7295723764308413 200 240 248 0.29805543251420502 5 580 3 921 2 576
85 1.6615898455472142 -5.2967119388660748 7.498344998290035 58 85 102 0.18881861646629655 5 584 3 739
86 -3.0579528822697029 -5.1140197515174162 4.7606556382337635 201 241 250 0.28690659717687383 5 589 3 704 2 571
87 -3.2709503535070974 -5.081192342823285 4.6514845076181937 205 244 251 0.031984856098212944 5 590 3 703
88 -2.9746037880001883 -5.0296626200076346 4.8489152522598511 180 218 227 0.68887322134325613 5 592 3 707 2 714
89 -3.2365660065975868 -4.9869000430472212 4.7161573339711698 192 234 244 0.073263054329299693 5 594 3 705
90 -3.3009466663309541 -4.9675016799199145 4.6741834974102412 187 228 239 1.777976779228263 5 595 3 706 2 567
91 -3.1469259452660738 -4.9066338456830705 4.8188948557062092 191 231 239 0.56110669233794341 5 598 3 710 2 718
92 -3.2522249948367441 -4.8869115340075293 4.7617243585118967 182 222 230 0.11991106977622761 5 599 3 709
93 -2.9738809931855124 -4.8499122488137765 4.9726690981816164 178 212 221 0.70428266579952181 5 600 3 929 2 719
94 0.47986733337164261 -4.8163983161523767 6.9803584170178068 105 107 106 0.43568334221646232 5 601 3 411 2 476
95 0.35053724521678453 -4.7932574079032957 6.9143616649930912 103 101 102 0.62103937821432054 5 603 3 439 2 477
96 -3.1499451856688796 -4.8074055528661104 4.8663383259415696 191 228 236 0.10713417272702946 5 604 3 712
97 -2.5244731815353223 -4.689206006336617 5.2857926696230697 192 231 248 0.28726044525284805 5 607 3 523 2 465
98 -2.9775921453984027 -4.6300854075367281 5.0767666186716749 179 225 240 0.11224774948730085 5 609 3 722
99 4.8040202044255356 -4.2527194674891566 9.7108070583049848 56 42 32 0.29996958684168651 5 611 3 1661
100 2.8743946293958507 -3.943907462764217 8.8502508421946313 165 149 136 0.22364336864576501 5 625 3 109
101 -0.033570053953734809 -3.9975963268147376 7.0266127098113049 139 120 106 1.3065045558264323 5 628 3 249
102 0.26894380462744488 -3.9957722049378961 7.2818437377277805 105 85 76 0.096947810314038096 5 629 3 1239
103 0.2207033231758522 -3.8153126389215664 7.3440643578065563 133 114 100 1.4846105144772366 5 637 3 606 2 764
104 1.1558060423389702 -3.6546900790174903 7.997390589778842 174 156 142 0.42453419866643471 5 641 3 232
105 0.25131165133483857 -3.5999102486769021 7.4671403525750364 128 108 97 1.1964621222032046 5 644 3 1872
106 -0.79409136415632753 -3.6509990233090552 6.848471098496316 143 125 111 0.099644248878815248 5 645 3 497
107 -0.42404793682289593 -3.6011332715326447 7.0287075921851461 94 80 67 0.34344729661935747 5 646 3 550
108 0.38031628995938538 -3.4659590057313334 7.5146048359369813 86 70 57 0.32652816906603577 5 648 3 114
109 -0.93717039996111395 -3.5226121654850626 6.7708314632521036 96 80 67 0.38445445909971893 5 654 3 803
110 -1.3335163745605676 -3.3412329009277824 6.6295207864716872 120 102 88 0.85731292306501261 5 661 3 812
111 -0.44041192672202217 -3.2038276730466189 7.1786814448558269 162 140 126 0.24055244820453561 5 663 3 378
112 -2.9483479587131414 -5.3373322108296515 4.7172676524182862 206 244 252 0.12387908850300078 5 737 3 698
113 0.79877406061593315 -3.6342052032940066 7.7884628530716586 144 125 111 1.0866599580678256 5 739 3 823
114 -3.4384386647624643 -3.7580591018541596 5.1994298855684518 76 72 69 0.77416928019797893 5 750 3 1557
115 -0.27077415292421386 -3.4100588182187854 7.1781988007559274 161 143 129 0.6246259690333954 5 751 3 822
116 -1.1913915769300152 -3.2534102446568309 6.774951422353606 136 120 107 1.1873570354112117 5 772 3 1684
117 -0.25484988060107777 -3.6800605682722871 7.1391823030695036 153 134 119 1.4335550052435713 5 812 3 1012
118 1.5121590589815246 -4.426337596811817 7.7698743108240373 178 156 144 0.071971151977220454 5 881 3 1823
119 -3.239312753558877 -4.5805349006296252 4.9270294192907098 47 83 103 0.16341996935306141 5 883 3 721
120 -2.8318078645749334 -4.644503940644551 5.1366537818963458 182 227 240 0.36908739727075779 5 884 3 679
121 -0.065801314623036067 -4.8007475406833242 6.6954280812077638 95 89 89 0.64565963380018099 5 888 3 1485
122 0.59339445930124934 -4.8276969686080431 7.050213177861961 81 83 82 0.41755949188013847 5 890 3 506 2 548
123 1.1925375929873452 -4.9541184460202405 7.3422918801597072 25 30 34 0.76455024942368166 5 895 3 598 2 549
124 2.4012829325855605 -5.2383529709265311 7.8949694773104522 51 31 24 0.075041588437144591 5 905 3 747
125 4.9593177478063026 -5.5762343049587955 9.2778043378846178 50 32 22 0.64282477181050102 5 914 3 289 2 472
126 -2.7136248710737516 -5.2975073378923971 4.8662034470932598 53 81 93 0.24766655285273598 5 916 3 917 2 1149
127 -2.6186587216630119 -5.3943680656221327 4.8825190174085167 195 232 241 0.20016693212071332 5 925 3 1147 2 705
128 -2.6601758682529719 -4.6688928148414037 5.2178790313286694 178 220 234 0.41797748150766562 5 931 3 723 2 557
129 5.0229435370006428 -5.8373845593566447 9.1817399282908596 44 38 48 1.2463125637997232 5 932 3 1473 2 1182
130 -2.6287320045557134 -5.4919788279429405 4.8268299322064099 203 237 244 0.25347169461312352 5 941 3 915 2 702
131 4.4715707273512537 -5.9842865181283909 8.7670195655959251 77 87 98 0.89809492735606256 5 949 3 725 2 717
132 1.1395457497042705 -3.4527690671473712 8.0232092374959514 156 137 123 0.72352137788088144 5 1036 3 1054
133 4.8994774517902249 -6.0777356696668843 8.9949773081939579 88 87 88 1.0782206063024522 5 1093 3 728 2 716
134 -2.7690433376842254 -5.4841507791318085 4.7338834020437517 56 85 96 0.19270661519934637 5 1102 3 914
135 3.966507234957819 -5.5408336793618496 8.6971563836416088 235 153 133 0.38093148082328376 5 1128 3 916
136 2.6781384878766104 -5.1340569119970922 8.0855982614323132 102 94 92 0.74758145014225752 5 1146 3 1517
258 0.21543336497470619 -4.9158355086948218 7.6220050523122094 59 80 93 0.44507854272184044 3 156 2 185
137 -3.2058856267664897 -5.0202093648026365 4.721068988797235 61 85 95 0.29437675707807437 5 1147 3 38
138 -3.2432603863663902 -4.91214273838166 4.7554771865046801 58 82 92 1.0875445203866978 5 1152 3 1390 2 1168
139 -2.329376263779217 -4.7235692034778696 5.3751040718723671 181 223 239 0.31403508516413708 5 1162 3 1415 2 1061
140 -3.30729146396683 -4.5980637780852955 4.8819156976440317 76 91 96 0.48209471551928668 5 1170 3 1408
141 4.2096149065866078 -4.3728991875514005 9.311586543124859 87 75 61 0.55328576231304605 5 1172 3 1016
142 0.18273004559235242 -4.2688830547196739 7.0426946153671466 88 74 63 1.4445976941555263 5 1182 3 1171
256 0.17365459408860873 -5.0069176320323576 6.7297209493794039 235 242 243 1.5376053462790531 5 453 2 1187
143 2.5168794708256104 -4.2119886124312744 8.4900241336222138 107 89 77 1.6277040706745354 5 1183 3 496 2 751
144 -0.49366058775026539 -4.2690999062144845 6.6607113018995889 112 101 95 0.91781979333767216 5 1185 3 1540
145 -0.68059319601055612 -3.8438362240827781 6.7739325682862148 147 129 115 1.1029472133370153 5 1217 3 973
146 0.93037001249329287 -3.7237591712645215 7.7952624646332316 125 107 93 0.029916761698717431 5 1219 3 1022
147 1.0688963505216733 -3.5963264363762719 7.8813963112792997 114 96 82 0.54444259690397201 5 1229 3 1680 2 957
148 -1.1558024724051621 -3.7750328291413138 6.5879768649592263 148 129 115 0.026818317730577003 5 1230 3 1387
149 1.9964654276267715 -3.4357147968087185 8.5849891781330196 169 151 137 0.30745730867007082 5 1243 3 1071
150 1.8220794006215504 -3.255433332081453 8.5314692781299577 134 121 112 0.4515835000133902 5 1253 3 390
151 -0.82129425010521695 -3.3553033439884987 6.9406681615268404 171 153 139 1.1168132468556426 5 1260 3 1039
152 0.78635146514786292 -3.177909251384055 7.9317432041087201 138 120 106 1.0492520248071295 5 1261 3 325 2 944
153 -2.0201879615387379 -2.9440931737868321 6.4371245328636508 178 159 142 0.97435376918384498 5 1302 3 117 2 407
154 -3.4052945275573565 -5.3680208144471271 4.4234996448557631 216 244 252 0.058895879382703936 5 1366 3 1382
155 4.8015059212281823 -5.6252760620838318 9.1384541697244934 49 28 25 1.7701024646142582 5 1375 3 25 2 57 2 1006
156 -2.855789469330158 -5.2699089238960957 4.793766383900766 57 87 97 0.10230171988592268 5 1381 3 1388
157 4.2358858528935359 -5.4931286745979548 8.8621342239851462 69 28 19 0.43048793184387452 5 1389 3 503 2 651
158 1.5917430242156245 -4.4431270483641372 7.801469455426628 172 154 144 0.78437961629495445 5 1392 3 762 2 737
159 3.3609070037152367 -5.4124416149949948 8.3831065867302286 159 145 136 0.26937260827477455 5 1396 3 751 2 1004
160 2.760223547358085 -5.2094726789794699 8.1799741525948733 56 45 41 0.26905461015297144 5 1414 3 1514
161 2.4414021752883488 -5.1200528106924859 7.9883771460609339 87 78 77 1.6696833683179864 5 1421 3 953 2 1014 2 1117
162 4.4742425711403726 -5.0934393463128771 9.1849064924944059 86 68 56 0.8632923616882926 5 1432 3 962 2 868
163 4.0088661203150355 -5.0148365833321176 9.0172362097155094 86 68 56 0.33096844543586845 5 1466 3 1169
164 1.8217955642500869 -4.4968380283693259 7.9536941924599169 173 154 140 0.25346724424775785 5 1479 3 166
165 0.82521529087462109 -4.4411642397394262 7.3983264416867902 85 68 60 0.42146417719007712 5 1480 3 1761
166 4.4327502987324436 -4.9454593561628961 9.2465465790516372 154 132 121 2.4390622541406959 5 1504 3 91 2 115
167 0.95971525365244803 -4.9185015839829429 7.2394179672259362 41 27 32 0.069151942715189901 5 1517 3 1496
168 0.83432552304995033 -4.3705059888641742 7.3650416945991157 84 67 59 0.25684912805313564 5 1539 3 1189
169 0.015566573078674241 -4.3120393443043703 7.0147576222222048 82 68 59 1.0621836834952414 5 1544 3 1164
170 1.6540629388048285 -3.9037811449677347 8.0942353772994711 206 186 175 0.52849455977886228 5 1582 3 243
171 0.81116008041039045 -3.9397054109611647 7.6005985916467722 157 139 127 0.22970696805745142 5 1586 3 1587
172 0.86454150817081898 -3.8541227711538601 7.6495213703275784 115 99 84 0.24959995679382113 5 1601 3 1612
173 -1.7173534191423658 -4.0186933866724157 6.1021907629239429 36 28 27 0.77175370942305876 5 1602 3 1569
174 -1.7868876909551739 -4.0061997440496731 6.0658639461685748 31 24 23 0.76496041816861982 5 1605 3 1568
175 4.5207680917347268 -3.614074074580377 9.9053381079915201 136 118 108 1.2096846646207211 5 1609 3 1750 2 406
176 -1.9279344383433072 -3.9816589062736054 5.992000651863532 37 30 24 0.74225849745641148 5 1613 3 1567
177 1.3752055223129538 -3.7115317689736051 8.0234262839023849 106 90 78 0.97496128527686032 5 1621 3 684
178 -2.155112860948786 -3.8790078819004918 5.870496463741218 39 34 30 1.3442978085428889 5 1634 3 1168
179 0.29482070966722856 -3.6561519686136075 7.4187891227161025 162 143 128 1.4009273338505963 5 1638 3 239
180 -0.11321698165201304 -3.648782868511669 7.1806436777249898 140 121 106 1.2573059312920774 5 1645 3 551 2 1291
181 -2.6484139051340945 -3.8321433465804988 5.6282361391780311 58 52 47 0.11021926656768773 5 1649 3 1724
182 -2.5787424614980199 -3.8212154318030627 5.6937909006540446 37 32 28 0.70549782833836439 5 1653 3 1178
183 -2.7675571364305629 -3.8021360562854061 5.5904931478790374 66 58 56 0.96456895751845573 5 1657 3 1167
184 2.5154341587726567 -3.2410225446955687 8.845905419782504 126 102 92 0.22878557060647464 5 1665 3 335
185 0.70577606526626779 -3.3732574396318915 7.7657913346545904 156 137 123 0.83338809166262029 5 1675 3 379 2 642
186 1.4083992384658097 -3.3098534753094864 8.2816416634185348 147 129 117 0.1338264165270826 5 1678 3 384
187 0.33181130005655329 -3.3885671291479897 7.6361315725615873 144 126 109 1.1398799061301772 5 1679 3 850
188 -0.82443893332671825 -3.2131081526365173 7.0336130218248814 141 122 108 0.89254028345223335 5 1696 3 844
189 -1.8912416528598115 -3.0779381439597944 6.4604995178876745 157 139 125 1.0978797704597376 5 1723 3 313
190 2.8092829319276715 -3.96599569399533 8.7352635300308297 113 97 84 0.0076535380005888307 5 1792 3 1030
191 4.2006058820466441 -4.2314934572297158 9.4984112357413331 124 107 97 0.29925804079203483 5 1844 3 235
192 -1.179301242458068 -3.0523051713822125 6.8879702482685206 144 125 110 0.33052908098544043 5 1876 3 126
193 -0.042763776325157356 -4.2575762244317987 6.9119235725193944 89 74 67 0.26833661511818307 5 2047 3 1660
194 2.1987068668291072 -3.9962457738487522 8.3783910722664849 203 183 172 0.78033439987337516 5 2088 3 236
195 -3.2241600048048475 -5.4069912839918119 4.5073891084208624 79 109 117 0.26364769649320641 5 2101 3 1380
196 -2.5785231372175774 -5.394646710625941 4.8964967495748137 54 86 97 0.70079911776231296 5 2106 3 1384
197 -2.8898214075946824 -5.3793378616327319 4.7654071760562946 172 204 215 0.86165697059464352 5 2112 3 697
198 -2.800668894461773 -5.2820500389023044 4.8209154718630716 63 91 102 0.178651943741958 5 2128 3 1811
199 4.6343872932457435 -5.5187330478254273 9.0251953707049317 131 54 43 0.93604187365567304 5 2140 3 920
200 -2.9677921517867754 -5.251369304518084 4.7402880940055345 54 86 97 0.36548331707921694 5 2142 3 1385
201 3.840656509358773 -5.4545818380489175 8.6452561464851492 163 84 69 0.29442971214492353 5 2148 3 1849
202 -0.32864795928130025 -4.2691275767292769 6.7672297535192811 142 124 114 1.5276186324923662 5 2154 3 601 2 512
203 0.89322317438424759 -3.6408614155577297 7.7668901101114338 109 93 82 0.090909145254379195 5 2163 3 820
204 3.6836760422042532 -3.4404966534479184 9.4698311169627036 99 81 71 0.85674940997373628 5 2165 3 625
205 3.3615970583689583 -5.3530913743097974 8.415624199269665 148 138 129 0.15739680857933025 5 2170 3 946
206 2.3315859927821303 -5.2074307749300823 7.8817863239926762 120 81 74 0.094066372084004007 5 2184 3 938
207 3.0705396980674622 -5.2257111175292259 8.3246970057827543 93 86 82 0.10787173749762953 5 2185 3 1518
208 2.4002828290401861 -5.2154550475077874 7.9686898801566084 79 42 36 0.43324367853291978 5 2186 3 881
209 2.3635053803790935 -5.0889440757462543 8.0146992558319674 47 43 36 0.71639653359622457 5 2220 3 939 2 1019
210 1.480566021231255 -4.8852887091559261 7.4924791679556924 38 35 26 0.77280517343353761 5 2254 3 1520
211 -0.093221966449504132 -4.2176274500768152 6.910923403530937 82 70 61 1.8791373417623038 5 2268 3 1176 2 1244
212 -3.2376230812390667 -4.8146858788836386 4.8259062737514604 169 204 210 1.3479169599293754 5 2286 3 533
213 1.5279472813001671 -4.5553977731442359 7.6966969846190212 90 70 59 1.3715812247089267 5 2330 3 1574 2 880
214 2.1868656805182525 -4.5633747355292247 8.1230845682102881 165 146 135 0.25583401821314733 5 2331 3 930
215 -0.013898352120505787 -4.2196865374476449 6.9873698433655305 128 114 105 0.99226939849997042 5 2334 3 1203
216 3.0006205644947617 -4.0023381848777309 8.8169910592707748 133 121 109 1.6333889387376612 5 2360 3 1657 2 1121
217 1.3514263445395476 -3.9909322324597785 7.845541957023193 119 99 88 1.7646835322807963 5 2385 3 1588 2 338
218 2.4608176814002789 -3.9272986430000651 8.5757800342043353 136 119 109 0.81101063972273668 5 2394 3 368 2 787
219 0.4786596620609157 -4.0184066262928013 7.4151803453004668 131 112 98 0.56470833598379289 5 2398 3 1245 2 488
220 1.3937861577160682 -4.469538091976097 7.7062172006038843 87 73 62 1.2215682283454534 5 2427 3 1208
221 1.9079380329058346 -3.8326106052888314 8.2991900010216124 127 110 100 0.066416342616762769 5 2432 3 1656
222 -1.5905510213967051 -3.9735308516845991 6.1794927697440851 38 34 31 1.169426298029216 5 2458 3 1183
223 2.7621730983727035 -3.6828746759381978 8.8105832822111356 108 89 79 0.15639594672148457 5 2463 3 1057
224 0.36420056619166202 -3.8438262042194866 7.4196007224489877 168 149 135 1.0775361688954632 5 2466 3 498 2 231
225 0.31932319132002568 -3.8071211397976441 7.3922148512966519 134 115 101 0.37820622854065078 5 2473 3 1149
226 -2.0996532351550119 -3.9376470183857295 5.8611162968071273 38 30 27 0.26331764424678816 5 2476 3 1564
227 0.84985828015990406 -3.7301029608498375 7.6611323902273805 157 140 124 0.96035578448030634 5 2479 3 211
228 -0.14219893155116653 -3.7617448185433555 7.171550014117793 176 157 143 0.99687075265263703 5 2495 3 778 2 233
229 -1.0868683923532398 -3.7599186130952726 6.5221291689163126 152 133 119 0.8026020708035585 5 2512 3 1232
230 -0.9817156504158242 -3.7455658833277035 6.6148940531596931 135 116 102 1.6804470168612975 5 2515 3 416 2 496
231 -2.3699447341805762 -3.824874499655218 5.7887195284445054 103 90 87 0.64241548028949191 5 2532 3 1201
232 -0.090815639147517072 -3.6178904933559379 7.2299021729207578 204 185 170 1.0649075978904641 5 2540 3 1635
233 1.3631893875501302 -3.4851921246467055 8.1861232836476372 157 138 124 1.3261314482334685 5 2548 3 123
234 -1.5184538487102215 -3.707825526696225 6.3999996028956607 157 138 123 0.70541455948348264 5 2552 3 490
235 -2.6501882599293092 -3.7810981491450142 5.6515720456262111 96 89 83 0.647422598306441 5 2555 3 1824
236 1.0594540250772819 -4.4390587370451602 7.4570838694174988 92 78 68 0.73415394517295129 5 2557 3 1759
237 -2.866451887490399 -3.7490919196927761 5.5488773273548162 95 80 75 0.73696401936505884 5 2567 3 1199
238 -0.014191478902871894 -3.2591442148018586 7.4343830214196434 175 156 142 0.91818341545815874 5 2586 3 245
239 -0.55847891234039815 -3.1720374968678389 7.1477714124581597 182 162 148 0.91681170225052866 5 2611 3 319
240 -2.2871455465395663 -3.8539367473533144 5.8200471713625523 44 39 35 1.2533311027792911 5 2651 3 1179
241 -0.18247579459421931 -4.4639075471332053 6.7742027736133625 95 84 78 0.28747365894895927 5 2691 3 918
242 1.5104478302446784 -4.4734652096869825 7.792317676525502 111 93 83 0.73551577986708794 5 2696 3 956
243 4.1704435573663909 -5.4596593834438201 8.8525965040403563 184 93 75 0.42794414925422675 5 2718 3 1513
245 -2.7962253955324274 -3.6283146350365234 5.490480107979657 0 0 0 1.3080281970108349 3 60 5 94
246 3.8047016757241936 -5.2375692843225217 8.6883497636696667 129 138 145 1.606327187287915 3 94 5 133 2 116
247 4.5394498136839392 -5.1798082825258032 9.0772557002935947 89 89 89 0.76805047721872344 3 159 5 134 2 183
249 6.2268629269838245 -3.9130096446355593 10.677572799164183 125 120 116 0.5559380222927166 5 1191 2 353
251 -0.47544242168728718 -2.5620671636518413 7.5504284941128788 154 149 145 0.095730620097035424 5 27 2 526
252 -3.3933131099997662 -5.2256234476647991 4.6155390870223032 216 253 255 1.067283600912764 3 700 5 583 2 573
253 4.0402198603295991 -5.4281374818482924 8.7716439700567168 187 152 147 0.25990569548939674 3 1512 5 1135 2 724
254 -0.28990964351069204 -4.1690640980080165 6.7332266196980068 131 136 142 1.2643340365630349 3 761 5 1188 2 738
255 4.6727881869920633 -6.0376130395682104 8.8905802079648737 155 237 252 1.0254048956198352 3 727 5 1095 2 992
257 -1.9581317354439631 -3.086474170172592 6.4352673197560302 254 255 249 0.61063471354101928 5 112 2 50
259 1.6527568044902179 -4.9269413450747139 7.5874500604297372 60 93 110 0.34367687772703015 5 2245 2 438
